# .PCD v0.7 - Point Cloud Data file format
VERSION 0.7
FIELDS x y z
SIZE 4 4 4
TYPE F F F
COUNT 1 1 1
WIDTH 1519
HEIGHT 1
VIEWPOINT 0 0 0 1 0 0 0
POINTS 1519
DATA ascii
13.908863 -100.69224 -2.426738
9.8567247 -105.32995 -2.820688
0.90309376 -104.32229 -2.8051209
2.6396945 -99.030609 -2.7662854
18.457872 -111.15937 -2.8599942
28.964626 -86.965424 5.3447728
2.522769 -98.945343 -2.8373189
10.298299 -102.44738 5.0247264
16.847221 -106.91301 -2.3431654
14.777514 -103.75954 5.6454401
13.115668 -102.09431 -2.8529518
8.308176 -107.56279 -2.8210514
2.8759806 -104.62399 -2.9136906
10.109234 -104.88712 -2.8045692
4.6122799 -103.28789 4.9261813
34.24258 -110.51533 -3.0542598
25.533432 -90.631859 4.6728182
-4.5333996 1.1986521 -5.5131826
12.884162 -103.62888 -2.9716084
24.71343 -98.786919 -2.7763495
12.84202 -103.63747 -2.9555008
17.087509 -114.45342 -2.7821827
19.279444 -106.65023 -2.6411188
16.668396 -107.50304 -2.5171232
8.5261745 -104.306 5.3795681
9.4538183 -110.31796 5.4036565
11.464334 -111.86835 -2.8447309
9.589323 -106.80654 -2.7507918
15.472133 -101.38379 -2.9742684
13.021129 -102.75432 -2.8518741
18.203135 -115.70325 -2.7402186
4.5087395 -103.21748 4.7746973
4.387846 -104.51035 -2.9006095
14.803696 -116.22678 -2.4993126
17.74015 -112.02027 -2.8391721
8.3299799 -107.57065 -2.8601053
13.110613 -102.05957 -2.8983698
2.7700224 2.0956306 -5.4035892
15.986379 -112.37211 -2.7880077
32.147297 -112.58391 -2.5364561
9.6260157 -103.93625 5.369154
10.958127 -105.36863 4.8455706
4.7854862 -102.68389 -2.5713232
6.3752809 -100.46067 -2.8492954
7.2028084 -98.220322 -3.0473287
-6.9626536 1.8451829 -1.0291328
1.4047127 -117.61282 4.7464404
3.7062891 -119.98352 -2.543221
10.854405 -106.85182 -2.7195761
0.87593019 -117.04852 -2.1890001
7.8833127 -104.52066 -2.6434023
18.232225 -95.602707 4.9734015
10.635929 -113.11025 -2.8256626
-7.0877786 -15.496177 4.1891451
6.1984696 -100.62439 -2.8562372
0.13792376 -104.01945 -2.2827423
12.559345 -109.4882 5.1028738
26.356529 -105.05016 -3.0406411
13.893298 -100.73663 -2.3927953
12.373995 -107.28426 5.5584807
16.364269 -102.27876 5.0603576
13.034284 -104.38725 5.6564689
18.335222 -97.631218 4.9189272
11.87686 -103.58113 5.40203
8.6463137 -112.6536 -2.8388419
9.5751743 -106.80862 -2.762151
8.8523178 -113.41473 -2.7087135
-0.12886128 -112.82444 5.048924
5.5414138 -100.7949 -2.672436
9.6297207 -103.93959 5.3715816
26.303738 -105.03305 -3.0103862
11.020704 -102.74868 5.2668376
13.910586 -100.7069 -2.415482
-0.59394306 -113.10084 5.1883054
-2.2059827 -2.5577948 3.8881996
0.91742587 4.0626369 -5.431314
8.3031483 -105.64214 -2.9316032
10.952883 -105.36327 4.8480067
10.973365 -102.98977 5.3986239
22.131823 -114.05603 5.5721216
31.949465 -110.05803 -2.5027945
18.118998 -115.57575 -2.6588438
0.10753691 -110.60587 -1.9550782
6.7568169 -116.46528 -2.680558
9.1786165 -106.51987 5.0702643
8.5004978 -108.12144 5.590786
2.8571362 -104.62174 -2.910418
3.5014699 -103.0488 -2.4359498
10.951743 -105.36329 4.8397546
11.03324 -102.77158 5.2223125
12.972258 -98.308502 -2.5155618
13.943927 -104.35139 -2.8516102
-4.7707043 -9.9620695 4.1054254
10.629518 -107.8128 5.4354792
5.6375947 -102.6161 1.1340048
6.80232 -106.09328 -2.5519056
8.2636204 -101.24742 5.2636657
20.732258 -109.66148 5.6491385
13.470512 -107.49234 5.2310953
1.1589848 -1.1348981 -5.2696304
9.036314 -109.04189 -2.1194625
6.9113202 -109.22739 -2.7204483
10.15405 -113.46636 -2.4142311
4.0577083 -101.33083 -3.0095479
9.4833164 -102.75637 5.0351162
5.2344551 -104.55327 4.8397818
15.178451 -105.54179 -2.6903198
13.324088 -107.3635 -2.37288
20.197693 -108.34285 -2.85605
16.031179 -111.4788 -3.1116438
18.298191 -115.79758 -2.7301958
26.441486 -80.216393 4.2125597
16.616648 -103.29939 -2.260664
22.744932 -99.171623 -2.8443015
13.114884 -102.09246 -2.8884313
13.97436 -104.32897 -2.9638128
11.01106 -102.73248 5.2909217
-8.3894768 -1.0774907 -3.9571087
16.322109 -102.30001 5.037848
3.4364438 -9.8263454 -5.3472209
10.714609 -108.78312 4.9052596
-1.1187427 0.64368987 4.4250846
1.8385316 -117.0723 4.5835843
10.628878 -113.11215 -2.8268554
22.045677 -98.663345 -2.6061838
-5.510241 -3.5232074 -5.1710696
13.936277 -100.67393 -2.427119
14.892469 -100.66461 -2.9620318
15.483134 -105.19944 -2.7228355
12.601388 -101.06612 -2.362648
13.034787 -104.38379 5.6517754
18.172888 -95.672806 4.9452047
1.801319 -106.29559 -2.8433983
20.071451 -112.07452 6.1465931
1.1710463 -13.82223 -5.304708
11.967737 -104.47128 -2.7018564
11.464211 -111.83096 -2.8141279
10.723989 -115.73367 -2.7865808
1.1687207 -103.12324 0.94897795
19.739985 -111.84737 5.9907198
1.1140404 -4.3639102 3.5696998
2.2613919 -105.58733 4.9992676
9.1698885 -106.51627 5.0742908
10.158894 -105.67432 -2.7324779
7.25843 -102.33908 -3.0171309
18.538836 -102.2779 -2.5943286
23.549809 -104.52708 -2.906158
6.6470718 -102.22196 -2.8501098
-18.275461 -110.95592 -1.0586859
14.775762 -112.96877 -2.7543898
15.808456 -113.42035 5.4483418
15.543507 -112.91578 5.2334294
12.212997 -104.60075 -2.8753958
16.906204 -121.41376 5.4025769
-20.205975 -109.86482 7.3332276
27.970102 -142.08623 -2.3279109
25.862576 -148.77719 0.43817231
10.842095 -105.00761 -2.8215973
37.968658 -125.57381 -2.7289765
5.330615 -102.41457 4.338325
8.7697296 -103.86131 5.1240525
9.0757561 -104.00729 -2.8517995
-3.610487 -21.9116 -4.3960977
8.2527142 -115.75615 5.5024605
-0.18438402 -112.83867 5.0481853
3.0921524 -115.06955 5.551652
-4.9668694 -17.198883 4.7438698
8.85709 -113.41621 -2.7274585
10.724185 -115.60146 -2.7213793
10.984267 -112.36684 -2.7861459
7.1559305 -121.38812 -2.4710398
5.2948189 -121.67381 -2.5166235
16.254047 -107.51944 -2.5719192
11.486277 -107.92658 5.457015
14.782547 -105.13457 5.6503019
9.3831396 -107.78207 -2.263413
0.22962153 -112.60393 4.9364123
6.8423147 -107.91718 5.8177094
2.4547486 3.1653671 -5.3113217
13.603224 -114.26425 -2.8554194
27.151876 -100.45335 -3.1469417
4.1701627 0.30794063 -5.7673788
39.239952 -111.50955 6.3100004
4.7853937 -112.48971 -2.4826961
9.2111387 -108.48743 -2.2732604
5.6136713 -122.05141 -1.7377703
10.743242 -115.6015 -2.7112355
6.1109681 -100.52769 -2.9370704
18.431154 -106.09898 -2.6116281
23.8647 -105.20055 -3.0790288
4.2129483 -107.17772 5.4388714
3.4399219 -113.85419 -2.7361085
9.5967388 -106.7978 -2.6829472
5.5153265 -122.35208 -1.7886914
8.1297855 -120.25189 -2.5815585
13.604656 -114.26139 -2.8545647
-1.3230658 -110.66496 -2.431778
9.569356 -106.80812 -2.7657766
8.1450901 -120.24158 -2.5787859
7.6404557 -122.40975 5.8343658
4.4271312 -101.55534 -2.7589471
10.797532 -106.12389 -2.6988254
6.6105118 -103.6391 -2.6892843
21.144053 -105.02736 5.2571855
13.199695 -109.94129 -2.3022833
26.593569 -104.95466 -3.006206
17.027092 -114.44064 -2.7466769
14.559122 -112.21735 -2.8254359
13.916407 -100.6663 -2.4425819
12.438035 -104.81082 -2.617646
-1.2604253 -110.63626 -2.4203193
5.7386222 -121.78641 -1.6432121
12.019116 -116.47764 -1.9481887
10.747582 -112.93816 -2.7025466
10.067217 -113.8 -2.6149096
8.2068634 -120.01701 -2.5048594
5.5828724 -116.8307 5.6612844
8.3091898 -105.64304 -2.9126594
0.44318199 0.11259056 -5.3568215
15.629329 -113.04594 5.3218193
14.093345 -106.1916 -2.371877
15.759353 -104.15578 5.4052935
16.155027 -99.984909 5.3592749
12.993778 -98.285713 -2.5611124
22.913136 -93.577003 -2.5350938
18.573959 -100.24284 -3.0155041
9.9099998 -107.99121 -2.6583326
3.6036465 -121.48371 1.851828
9.381772 -121.11916 -2.0235033
3.3058891 -102.98082 -2.5678887
10.812883 -106.12604 -2.6320162
10.058516 -104.0247 -2.9372072
6.4734216 -103.55422 -2.8306284
-2.160161 10.811198 -5.4927096
21.191774 -105.08411 5.2622018
13.852031 -113.07871 5.5824823
-1.4266504 6.8228755 -5.4493828
18.048504 -96.229927 -2.9035397
19.877102 -102.90717 -2.923573
23.988562 -92.365425 -2.9740098
11.553804 -101.39388 5.1000433
20.787901 -108.74531 -2.8994627
18.518784 -109.26397 -2.493798
4.7206755 -105.03094 5.5516801
9.0700817 -104.00385 -2.8548601
8.9088326 -99.663597 -2.9689374
8.8057699 -112.63699 5.7034163
11.566751 -110.32773 5.8788719
6.9416709 -107.88287 5.7361155
9.1968298 -109.35707 5.605114
9.649416 -116.76404 -2.648437
10.186609 -115.43802 -2.6983411
10.974135 -112.40609 -2.8041451
6.4631395 -118.09489 -2.7015584
9.3888779 -107.76951 -2.2436087
-5.0659647 -3.0989394 -5.2917261
33.803478 -102.63241 -3.377959
15.053988 -102.1731 -2.8220539
13.256067 -112.67199 -2.7302709
-1.6310887 -2.5377643 3.6898162
-12.565412 -12.066253 -4.5513191
23.214939 -110.30348 -2.8320811
23.506786 -112.07838 -2.6920116
21.556622 -107.47485 -2.6451495
6.6604881 -102.23009 -2.8447587
5.8255429 -103.69685 -2.8340731
11.457362 9.4534922 -5.2463231
7.3035769 -98.416405 -2.9200563
14.943467 -113.19513 5.4355392
8.2784061 -105.64014 -2.9471605
3.7341125 -119.95226 -2.5361111
28.081326 -84.134811 -2.7717052
10.236545 -106.43854 -2.74702
3.040818 0.71982181 -5.366806
13.838818 -107.0802 4.5410714
15.450227 -100.53407 -2.4946609
8.2634926 -105.64919 -2.982131
14.615993 -113.27502 5.2592764
14.078156 -110.858 5.8580146
1.7150576 7.7236428 -5.5114579
15.675518 -100.00002 -2.1301513
8.0446959 -100.7852 4.813086
10.154283 -115.60242 -2.7871084
13.880999 -111.42892 5.5259895
32.681744 -100.76986 -3.3397574
9.1575394 -9.0542116 3.9072754
15.965806 -112.34843 -2.7737198
8.9830008 -112.42314 5.3516588
-19.737198 -116.12845 8.4335966
18.00672 -135.94183 -1.0017638
3.6141057 -118.0955 -2.5841136
14.79903 -114.10502 -2.6376727
35.541759 -111.18929 -2.8799293
19.856136 -111.61873 -2.7415009
2.4758315 -108.86143 -2.6122274
5.8311372 -116.39367 5.5471258
10.262452 -106.4146 -2.6836112
-2.2647989 -9.1781607 -5.0353189
36.003273 -111.33485 -3.0196183
10.76159 -116.0296 5.4052382
-0.40535694 -7.9457297 -5.1764436
1.5001149 -112.80874 -2.7747407
10.655935 -113.00656 -2.7595861
8.8579531 -113.40581 -2.701741
8.4346895 -120.41553 -2.5023675
21.167061 -120.46165 5.6744146
18.05508 -96.188042 -2.9203172
0.43959293 -6.364059 -5.1665173
20.079876 -108.27901 -2.7956109
-0.16258389 -2.2624178 4.3551755
-3.3947496 -13.900393 -4.4334359
10.763299 -115.78482 -2.8028357
7.520483 -106.99317 -2.4332683
1.770757 -102.53127 5.0289254
26.487438 -105.82687 -3.0149887
0.37073565 -13.104109 -4.7690597
20.372152 -94.182571 -2.8937778
-4.2235465 -3.6389751 -5.2846909
23.427164 -102.77747 -3.2782826
16.101482 -104.44327 -2.2528274
24.088444 -99.076271 -2.9392812
26.486732 -105.02409 -3.0949726
13.766739 -112.21256 -2.9154544
-1.1247119 -3.9644914 -5.1601257
21.898905 -102.22575 -2.9153206
18.846722 -118.22809 -2.5265682
1.8401655 -16.606798 3.7438593
2.4387789 -107.05657 5.0414147
-7.0145311 -6.5225778 -5.0472617
4.0381823 -102.05023 5.5148673
9.1692715 -108.52328 -2.3479693
10.257939 -106.41058 -2.7022948
8.2283773 -111.74396 -2.8193226
8.6320057 -112.67437 -2.8631911
-0.98308158 -2.4032741 4.2226181
9.1176081 -9.0307751 3.907177
11.075191 -110.33206 -2.8036802
10.171516 -109.49911 -2.6264837
19.810493 -98.688629 -2.5707128
19.827765 -102.90372 -2.94754
12.062247 -103.561 -2.6123922
18.06193 -112.06719 -2.8303432
-3.0252044 -12.992824 -4.8626976
4.2040572 -107.19093 5.4250803
10.768589 -112.94632 -2.7318349
10.25909 -106.4207 -2.6850731
4.9033661 -104.81586 5.3464484
12.011438 -107.95438 5.5019259
18.849176 -118.22872 -2.5156362
11.072008 -110.32835 -2.7827454
-22.553293 3.6383314 -5.2396321
16.041906 -112.43566 -2.8302679
18.049526 -112.05168 -2.8181136
14.549428 -110.61673 -2.8024952
2.8574526 -15.698607 4.611095
8.9939232 -109.04792 -2.0887606
4.7598357 -112.87621 5.5463715
2.4337451 -107.04966 5.0546193
16.097895 -104.46458 -2.2355652
6.1224031 -111.89817 0.3774868
8.4942446 -0.19153892 -5.1142569
8.0063515 -115.88512 -2.7322674
2.441179 -107.05215 5.0690975
26.727285 -104.90211 -3.0590537
-3.8578255 7.3596811 4.6337423
10.431797 -110.89084 -2.7635574
7.7954569 -108.20647 -2.7177954
11.4512 -111.87794 -2.8275483
2.304909 -107.06906 5.1240892
15.496871 -109.38228 -2.7980917
15.775491 -107.57336 -2.7093911
13.626781 -114.33237 -2.880527
18.035934 -102.01723 5.6250358
30.207809 -116.1496 -2.6218226
34.414715 -110.97787 -2.607002
-16.286263 -115.29008 1.126204
12.952394 -130.07675 -2.2519715
9.6524534 -116.76696 -2.6494524
38.001492 -125.643 -2.9884038
14.098032 -113.1702 5.1735244
4.1767893 -10.159715 4.4265666
15.531941 -104.99152 5.6361861
16.007195 -118.04398 -2.6083927
5.9977174 -116.82368 -2.6416852
17.405472 -100.25598 -2.9577906
34.481823 -110.56862 -3.0889459
-20.826242 -106.44868 8.8568554
23.23558 -111.94879 -2.6269267
19.441444 -125.60206 -2.3764257
2.2280557 -0.80205858 -5.3187366
13.508044 -116.51715 -2.6528885
16.233191 -129.27174 -2.2489262
32.238441 -116.92168 -2.7626488
14.51951 -112.18827 -2.8093944
0.34983951 -2.3922153 -5.2958255
14.064303 -113.10086 5.1125841
12.871598 -116.04099 5.3620563
14.068325 -107.39908 5.2577538
11.57134 -110.29513 -2.7130516
-11.971238 0.50399977 -5.4517989
2.3749518 -117.99664 -2.4861302
13.970841 -110.66676 5.6814904
2.362164 -103.01411 -1.0057647
13.608036 -114.26292 -2.8559017
14.954301 -116.52849 -2.6956995
-6.0179563 4.3259454 -4.3435636
19.828613 -102.89177 -2.9455898
-0.98207498 -109.6181 -2.6881454
6.6839409 -116.51583 -2.6885283
13.604566 -114.25614 -2.8532751
15.488514 -100.45401 -2.5321167
12.437844 -119.6974 5.3241692
9.6642342 -120.36942 5.6564069
8.189971 6.4087939 -5.3472109
34.12162 -117.74708 -3.1793342
14.976829 -116.6164 -2.735724
24.320061 -98.763847 5.0228753
15.581676 -103.28806 -2.4712214
6.674911 -113.55264 -2.7095134
9.6263399 -120.60289 5.6877103
5.7176013 -116.57803 5.5988407
8.9763603 -103.75261 5.2642355
8.0964737 -105.38651 5.4128871
16.356581 -121.74456 5.3433022
15.495086 -109.35072 -2.7799025
26.571054 -138.67665 -1.8327758
2.1411183 -110.08746 -2.7440717
15.522709 -109.39344 -2.8196673
0.84519851 -1.7880423 4.5306354
23.70232 -99.227776 4.8980913
13.270182 -118.20379 5.320951
7.4065151 -10.010681 4.3246145
22.070957 -102.18198 -2.9073184
24.105682 -97.208893 0.65611535
25.893944 -91.672165 4.4707375
14.787012 -112.94175 -2.7498877
2.3370047 -102.63972 5.1240392
-24.44961 -103.31522 7.8619361
1.0859143 -103.10336 0.96256876
8.4436197 -120.28174 -2.4480419
12.594392 -117.14943 -2.7933965
8.9736662 -109.05569 -2.0436077
3.6779482 0.023543378 -5.3622561
18.044687 -98.513191 -2.4829111
23.579971 -99.37738 -2.7612545
15.43034 -101.56226 -2.881536
-5.0606222 -8.5945263 -2.1000915
15.394626 -100.58783 -2.476469
15.74876 -128.2616 -2.5401604
29.31855 -111.43937 -2.4870956
9.4131069 8.6244135 3.6619546
1.8901341 -101.06268 -2.9533858
10.386389 -120.72399 -2.5342214
11.075904 -117.11934 -2.5530851
8.0051699 -113.23029 -2.850656
-1.7403815 -104.44496 -2.8276081
2.4818013 -107.06771 5.0442715
2.1268539 -110.09381 -2.7541397
3.7145092 -119.97614 -2.5427008
-2.2685261 -2.4599321 -5.3223276
10.766642 -116.00583 5.3962226
20.115908 -127.07787 -2.7043867
5.939898 -103.6806 -2.7657611
19.964293 -110.30096 -2.8652506
15.431676 -101.51717 -2.8976512
10.324962 -107.08549 5.232985
17.166115 -124.04095 5.8752265
19.882132 -111.62349 -2.7130017
17.306562 -128.51337 -2.528959
15.994667 -127.92255 -1.9604217
32.61195 -80.442398 -3.5656915
13.4601 -114.49473 -2.8222587
21.329149 -120.59403 5.7127829
13.201376 -108.14911 4.800281
0.57731652 -103.1178 1.7122985
1.5950829 -102.95559 -0.56736171
-24.792332 -112.38322 8.2470131
8.7169676 -9.3947659 -5.1726403
8.6225691 -112.68694 -2.8746104
11.311784 -113.70203 -2.4989042
6.6691308 -116.49989 -2.6856103
20.408989 -111.03976 5.7895751
16.67067 -114.5527 -2.7470174
6.8392997 -131.80931 -1.9685049
11.234898 -116.43009 -2.6933315
1.1356499 -117.79807 5.3600035
16.764071 -126.43226 -2.127914
11.306765 -113.72715 -2.5310211
2.6205642 -0.52276874 -5.283977
19.339806 -125.39869 -2.2810371
20.595932 -111.09265 5.8585892
5.2997718 -117.2873 -2.4586999
13.310875 -107.88704 4.9228473
21.38744 -120.69465 5.7541389
15.999933 -112.37411 -2.7785702
38.839531 -137.40036 -1.8990854
-29.640926 -79.622948 7.7028222
-31.507658 -78.348213 7.9603205
-0.92836142 -2.7294044 -5.2028341
8.1929026 -105.47228 5.3338318
13.202688 -108.14303 4.8222895
24.306948 -97.015739 0.56197381
18.802679 -118.17432 -2.5064116
10.02521 -9.9924459 4.3971472
15.72097 -107.58395 -2.7041342
19.564655 -125.84827 -2.4284992
19.895037 -110.69189 -2.9247806
15.427731 -113.10181 5.5205278
9.9867802 -104.67834 5.3514137
-4.6607337 -107.42316 -2.5393536
2.1796341 -110.10631 -2.7381713
1.4515698 -15.647812 -4.4532743
0.24738239 -108.07691 -2.6742072
3.5852327 -107.97667 -2.742424
4.4025297 -112.06499 2.7961824
11.077028 -110.32922 -2.7989466
4.3200445 -113.01308 -2.7435207
3.5707705 -110.96069 -2.6248181
6.6337686 -113.58817 -2.7292676
-1.2354294 -109.62747 -2.7611635
-5.7502131 -8.9249716 -4.8617792
13.684391 -110.88462 -2.7647946
9.9575148 -109.56678 -2.5904558
8.1344538 -120.20876 -2.5665879
3.8115733 -118.01664 -2.6441088
2.3061211 -118.05114 -2.5164368
13.833597 -105.63648 -2.4315288
14.978225 -114.43916 -2.8321671
14.794167 -118.67912 -2.3890603
16.266064 -100.644 5.3565745
13.55434 -101.2063 -2.2766287
14.905242 -114.30983 -2.7406042
-4.8424296 -3.8221955 -5.16536
8.1288996 -120.26353 -2.5927207
15.89604 -117.58733 5.9568043
15.207067 -111.80164 5.5494862
10.9323 -103.50988 5.2904553
15.747199 -107.58136 -2.6957688
15.413589 -105.23818 -2.6545849
8.635231 -112.67146 -2.8383946
12.557925 -127.57898 -2.5661404
10.245526 -121.27296 5.5789967
3.5410368 -102.93758 -2.9453161
3.8877871 -0.80876565 -5.3098292
16.727358 -114.64117 -2.8106077
14.831035 -105.09131 5.7019167
8.2354507 -111.72578 -2.7835019
7.9399738 -110.8929 5.42027
3.5882142 -102.98599 -2.9021118
15.848102 -117.45729 5.8906322
13.596927 -114.24004 -2.8311434
11.056666 -110.34766 -2.7966268
8.7399645 -125.90652 -2.1817873
11.34245 -113.68526 -2.4898596
4.2440157 -112.78658 5.6257644
-20.742846 -111.7607 -1.3757696
4.9614625 -106.7422 5.4211822
21.220196 -120.52901 5.7394557
15.435854 -101.50589 -2.8931344
18.270912 -115.76504 -2.7841566
9.6445284 -120.0822 5.5990443
8.3771915 -120.51373 -2.5479844
6.6625624 -113.57526 -2.7200098
4.0779819 -5.604095 -5.313118
6.1113439 -121.59697 -2.4042656
14.558761 -110.62265 -2.8021548
2.4807773 -103.07105 -0.95553654
6.9551849 -131.25514 -1.7581534
0.80745625 -118.26534 4.8825507
14.466241 -108.3716 -2.7234235
24.185757 -124.5685 -2.4215693
26.667398 -104.94037 -3.0521088
4.9248719 -104.81604 5.3450065
0.43317279 -2.7619152 4.096209
15.17015 -111.70338 5.7714095
0.73367947 -118.31537 4.83078
3.6501362 -118.1937 -2.7412438
10.777185 -124.41894 -2.4552913
11.538127 -121.1124 5.2645907
17.09923 -114.46407 -2.7831564
-31.31468 0.89744288 -3.5215766
14.951517 -113.21241 5.4528403
19.702526 -114.83383 -2.7819686
13.788274 -112.15614 -2.8295417
3.9201355 -110.13602 5.4273686
-9.5101519 -21.033232 4.1481924
17.363785 -128.55331 -2.5745397
1.2496461 -117.64769 5.2398467
-20.345512 -107.90732 7.343534
29.871143 -145.01479 -1.3777789
0.45414659 -5.585557 -5.1250677
8.2150478 -105.46452 5.3353362
-3.6970291 -6.1614709 -5.1885834
12.00691 -112.93063 -2.6632247
1.3967044 -112.82754 -2.7760589
5.8800035 -118.79222 5.7267418
0.039739951 -114.97002 5.0035501
14.596792 -113.20868 5.211019
15.875229 -117.53564 5.9336791
6.969121 -131.22495 -1.8992571
3.4683838 -102.8653 -3.004503
12.469632 -117.37546 5.2120323
-1.5785317 -3.2666504 4.0881476
-8.7630978 -8.6223869 -5.0842195
0.85606337 -118.21568 4.8246045
8.7325439 -125.81336 -2.161375
10.301253 -120.90572 5.4574881
14.565221 -113.18624 5.2084265
14.78429 -116.18731 -2.4771109
3.388808 -101.49265 -2.8936427
9.7419319 -140.30437 0.35273999
22.41814 -111.65407 -2.9022505
13.928952 -110.15005 -2.7699463
15.880466 -111.05984 -2.8543134
2.5288866 0.77998132 -5.3677735
13.242853 -112.67671 -2.7068193
22.611778 -115.87806 5.7272053
7.4598627 -106.62875 6.1421075
-1.0802343 -103.35388 -2.8295083
22.074276 -116.41318 -2.7634926
8.095211 -116.99374 -2.6742828
6.8409142 -131.74686 -2.0083599
11.099017 -111.65453 -2.8159046
12.474978 10.434111 3.9756577
7.0219102 -112.95533 -2.7870243
15.797082 -106.50236 -2.8040085
6.6571069 -11.881613 -4.7923369
10.904674 -107.69312 5.4989166
13.797653 -109.71269 -2.7590189
6.8716054 -116.51884 -2.6524031
8.1718683 -114.52904 -2.7843027
-1.1569006 -109.61864 -2.7699981
11.399886 -123.54698 -1.9864734
10.739039 -115.8931 5.332973
12.14054 -109.75082 5.7470455
16.094795 -104.46784 -2.2530167
29.053293 -101.21509 5.0921078
11.316407 -113.7033 -2.4936576
-9.5650301 -21.142248 4.1943998
0.25340524 -108.05423 -2.7041364
8.8599768 -113.42075 -2.7254643
7.6759462 -105.29459 -2.9444506
19.672827 -114.81298 -2.7929564
-0.94600016 -1.6500061 4.4483705
21.405441 -123.71276 -2.4008734
20.836948 -107.42673 -2.883908
11.838844 -115.28075 -2.6824462
4.9465008 -123.37023 4.9675927
-3.7389829 3.7854333 -5.4947267
4.7902012 -104.74397 5.3884149
1.0244509 -118.66542 -2.5173941
10.767863 -112.93726 -2.690547
8.1671782 -114.52269 -2.7710238
4.9490771 -123.34343 4.9809484
6.2821112 -103.37964 -2.9932487
2.3008866 -110.0639 -2.6638312
7.7976232 -6.2700677 4.4137211
12.906168 -116.29854 5.4667172
14.432429 -118.32565 5.7213168
18.955067 -118.35303 -2.5729671
16.171843 -103.29886 -2.355453
15.446294 -105.23428 -2.670332
20.828526 -107.44089 -2.884253
21.776329 -102.36423 -2.7663033
12.071136 -117.9697 -2.4801621
10.184757 -117.64284 -2.6068492
0.10281282 -114.97641 5.0045371
10.145442 -117.00215 5.5478826
-1.1467001 -109.63555 -2.7930059
13.440846 -111.65024 -2.740253
20.84096 -107.42623 -2.8946741
11.000173 -112.38694 -2.7788913
8.8695354 -113.41055 -2.6775355
3.8375289 -110.21377 5.4065638
5.795558 -103.50532 -2.8879087
2.928555 -103.02494 -1.8434591
7.8036022 -107.85735 -2.5775595
0.22805981 -103.10966 2.0212722
14.734165 -118.5636 -2.321521
17.205778 -107.22395 5.4263034
26.370573 -117.38808 -2.6162579
14.070132 -115.72768 5.2434812
22.046131 -129.99437 -2.2949884
17.098324 -114.43926 -2.7843881
15.534893 -112.92589 5.2003193
12.069244 -112.58817 -2.8010011
10.100507 -113.54021 -2.4780576
16.714701 -118.14233 5.7462049
16.96027 -118.62435 5.954742
6.6799979 -132.40327 -2.0907824
-3.8190253 2.7843709 -5.4998374
10.098171 -113.56795 -2.4931836
20.16547 -129.32509 -2.3725228
-1.0266201 2.0613291 -5.4822278
42.748676 -137.97435 -1.9645449
-3.1075857 -2.0359972 3.9901826
16.929144 -117.76647 -2.6658921
-2.6279562 -2.385565 4.0616031
13.459493 -110.85468 -2.8229222
9.643013 -116.77583 -2.6578007
11.555773 -112.76989 -2.7132514
-0.060722359 -118.06454 -2.5737159
3.7229424 -119.97534 -2.5276361
8.0864439 -105.35452 5.44135
9.8811369 -111.81607 -2.809479
0.69662702 -118.3441 4.8362274
-17.477581 -139.02016 1.7729023
9.8876667 -111.80489 -2.8253412
6.6620674 -113.57121 -2.7423804
6.6809564 -117.70116 -2.5703769
11.829394 -115.30193 -2.6925945
18.440426 -110.34834 -2.8702526
3.3094316 -106.7688 -2.8534956
16.005981 -112.38054 -2.752712
19.501286 -108.95105 -2.9708035
23.949518 -124.24924 -2.392297
-1.0282115 1.8321568 3.9520319
10.229282 -121.44202 5.6341939
8.0979977 -116.98791 -2.6700828
7.5174851 -114.9205 -2.7856917
21.968636 -118.94019 -2.5267601
13.006536 -113.71839 5.7162552
12.160114 -112.08459 5.6319313
8.061944 -105.32579 5.4605794
7.6749945 -105.21428 5.3012128
7.5517497 -107.2557 -2.4459801
12.092128 -117.91409 -2.4812937
10.843911 -112.2356 -2.7637742
10.999667 -112.35645 -2.7656057
3.4988387 -114.09545 -2.7484007
1.4043064 -107.86504 5.1897302
13.460493 -111.61274 -2.7848263
10.533561 -106.48945 4.6806107
15.868966 -117.54301 5.9213614
19.708055 -114.83222 -2.8176391
-3.1216538 0.88809663 4.3866348
8.6310205 -112.64342 -2.8422449
10.101437 -113.4944 -2.4399183
-0.19748797 -108.31409 5.257381
4.7477174 -108.95386 5.8796792
21.231623 -120.49197 5.686151
15.73719 -107.58409 -2.6708293
-3.3796549 -0.65980405 4.1714106
12.633821 -107.48605 -2.4382865
11.069106 -110.33246 -2.7964602
5.8443022 -102.1906 5.8365307
13.256491 -112.67352 -2.6960444
14.553593 -112.22977 -2.810338
18.71212 -99.605812 -2.9933085
7.3058028 -110.95345 -2.6130528
34.962162 -110.96019 -2.6402085
19.813391 -124.83443 -2.6172268
15.706671 -107.60384 -2.6402147
11.925236 -112.68842 -2.6812882
11.065336 -110.33729 -2.7407646
8.2709942 -102.45127 -2.9504886
12.536284 -118.15733 5.48493
-1.9068185 0.56794268 4.427319
14.84934 -118.83121 -2.4715292
16.122091 -103.37013 -2.3152776
9.0120888 -111.41555 -2.7139177
8.4126577 -120.5725 -2.5893474
7.7783389 -105.2898 5.227231
11.74767 -108.23362 5.5151544
13.249112 -109.09078 -2.8638051
14.740492 -109.63351 -2.7781243
20.79056 -106.43253 -2.7579718
23.929203 -99.068886 -2.8720002
18.76759 -118.14064 -2.4988689
15.915222 -117.24036 -2.6224482
14.519303 -115.20512 -2.7099423
11.268688 -108.26018 5.4004812
2.0968554 -0.3302041 3.7951295
9.5630474 -106.21373 4.9371729
1.7599107 -104.14516 -3.024704
-11.906199 -107.96815 -2.7084711
9.0602713 -121.84113 5.5940156
9.6451473 -116.76791 -2.6582556
9.5359335 -115.21822 -2.80194
10.64742 -112.95879 -2.7038138
5.9021263 -114.33588 -2.4672744
20.903154 -107.38332 -2.9509473
15.411303 -105.20249 -2.7115991
14.282406 -116.71073 -2.648129
10.523648 -106.46347 4.7041492
3.7187533 -119.98108 -2.5286856
34.974331 -108.82864 -3.2451727
0.12535395 -3.1466908 3.6501312
3.5079098 -102.90002 -2.9945202
14.999733 -121.9016 -2.4599886
0.38525566 -103.14556 1.9597363
-2.1136997 -103.34887 5.599277
11.075835 -110.32697 -2.805975
6.2960644 -111.94002 0.1385005
0.49143189 -103.06892 1.7019811
3.4190147 -118.174 -2.695462
36.877941 -141.16631 -2.2597182
18.401415 -111.14677 -2.8533971
-24.478561 -103.41734 7.8953099
12.894028 -113.10976 -2.5887439
10.643923 -112.97698 -2.7435608
12.366541 -156.6843 -0.6450786
33.184067 -138.91856 -2.1125045
34.221172 -139.53712 -2.1600754
24.205875 -104.92439 -3.0348346
13.106668 -117.14853 -2.6318896
16.82654 -122.54179 -2.4780917
31.171143 -126.34858 -2.938606
19.721445 -114.86661 -2.8006086
17.063389 -114.40125 -2.7235596
16.041325 -117.74655 5.6872458
4.8716822 -123.48416 4.9926057
10.728678 -112.99207 5.2153096
10.183988 -117.67605 -2.6400187
9.286377 -115.97475 -2.6065726
3.5355558 -114.08944 -2.7209136
-1.3401915 -0.810664 3.9801846
6.6452808 -117.70356 -2.5993502
0.036141437 -118.01282 -2.5430784
7.5150094 -114.92196 -2.7883458
24.78693 -100.36895 -2.9265723
11.615528 -112.3087 -2.7189467
13.470531 -126.66428 5.1359353
14.257536 -114.99847 -2.7513452
4.4429307 -4.0109835 3.7596588
15.605045 -121.4972 -2.5723457
11.986963 -111.5257 -2.7813456
11.527662 -115.05133 -2.760134
12.09863 -118.07532 -2.5972154
8.8678846 -121.28284 -2.2896161
-17.431431 -139.01717 1.7767425
11.616364 -108.45366 5.7166743
8.6562624 -112.64359 -2.7999895
12.49114 -125.19491 -1.966172
21.692093 -117.68123 -2.1564827
24.172998 -121.69784 -2.3230591
15.613158 -121.53304 -2.5972114
17.93606 -108.524 5.8124785
1.5326245 -4.1566496 4.5317755
11.103841 -111.66605 -2.8265426
1.3407109 -124.18588 -2.4630339
8.7324009 -125.80714 -2.1634099
8.4028902 -108.51215 5.5160279
12.853303 -122.97575 5.4998693
16.161451 -112.67058 -2.6236944
16.842148 -126.8067 -2.2348461
0.9421283 -3.8941479 4.0215659
26.119619 -91.408203 4.6508846
15.965411 -117.34792 -2.6910701
8.3566303 -108.47953 5.5511761
18.84194 -118.21772 -2.5092175
13.568144 -114.46764 -2.7568586
13.249996 -112.67316 -2.689702
21.484076 -123.78528 -2.4120295
13.662718 -121.84048 5.4628839
11.84481 -115.29721 -2.7113955
11.452119 -115.12398 5.289331
1.2574205 -2.9187005 -5.124186
-2.9584637 -127.06709 -2.1524241
13.818097 -116.54942 -2.6929557
8.7129326 -125.92377 -2.1959496
17.391754 -118.80859 5.9081197
39.345997 -137.54498 -1.9893926
42.898365 -96.310883 5.0536714
15.739356 -128.21002 -2.5187719
9.8753929 -111.82541 -2.8118527
6.8734012 -116.51862 -2.6572843
39.273693 -137.8976 -1.9611384
0.28663093 -103.12746 2.01566
-1.972851 -105.82481 -2.7231417
-17.584898 -139.02274 1.8063802
3.5062761 -103.13992 -2.8346751
4.423233 -112.06111 2.8333828
14.799509 -127.62395 -2.221478
6.111392 -111.88848 0.33886608
15.801628 -117.44597 5.8571095
-8.2954454 -91.191719 -2.6507947
-1.0057998 -103.33518 3.9561484
16.111423 -112.69412 5.4980788
15.925464 -119.61664 -2.6104655
13.835647 -120.76817 -2.4944086
14.314359 -114.28439 -2.7178953
14.413986 -116.8253 5.0437546
-4.1807852 0.70366305 4.4167037
0.68875736 -118.31927 4.8593869
6.6791883 -113.58291 -2.6923864
4.7255888 -113.42502 -2.7770522
6.9683142 -120.7038 -2.5996282
5.1237488 -117.57214 -2.579206
13.679238 -111.63848 -2.7634573
0.52099752 -103.08769 1.6843914
6.6828113 -117.68138 -2.5682807
5.7987776 -131.73267 -0.27154458
9.9677792 -124.38387 5.6417994
23.923235 -108.03902 -2.9959393
20.068249 -113.3912 -2.9005325
15.638486 -124.50331 5.3828573
14.304248 -114.26569 -2.6907907
11.777452 -110.92651 -2.7616401
11.181805 -111.18667 -2.8305228
0.72304702 -122.61602 5.1431656
4.6418362 -103.33298 5.0813723
8.2313738 -113.63389 5.2690701
8.7638884 -120.31271 -2.6601286
11.569023 -111.90665 -2.7829337
8.8844061 -114.44859 -2.7932045
7.9417701 -115.02836 -2.8075986
2.5557904 -5.9914865 3.7928627
11.432123 -118.24426 5.4199624
25.625734 -98.916092 5.3248253
6.5669813 -115.09743 -2.7735415
8.6252012 -112.63926 -2.8390424
13.464891 -111.6093 -2.8360732
8.8540449 -121.25285 -2.282089
8.985631 -104.36668 -2.802068
14.719479 -121.47838 5.5878153
19.89876 -111.62185 -2.7567329
11.779452 -110.93788 -2.7502277
20.040915 -113.39751 -2.8843086
4.9335055 -111.459 5.3617129
14.061158 -112.67619 -2.6739941
14.916443 -118.91862 -2.3987463
4.7307248 -113.40366 -2.763875
11.001842 -112.36282 -2.768796
0.39109337 -2.7722263 4.0294714
2.2332098 -110.10631 -2.6592641
8.0083103 -109.32237 5.5462389
17.095119 -113.34046 -2.7279882
10.520001 -115.74107 -2.7239332
11.219246 -116.41084 -2.6481819
8.6238832 -112.65328 -2.8535607
5.0424504 -111.46318 5.3084259
20.913736 -112.67123 5.7781744
13.807895 -116.53379 -2.6882253
13.464927 -111.62759 -2.7924907
11.322877 -113.69572 -2.4723716
11.40562 -119.10816 -2.5624275
10.007408 -119.51512 -2.5950942
0.22972807 -114.00318 4.9756446
7.4564977 -105.00327 -3.1640506
11.75143 -112.24917 5.5813522
12.558498 -118.60809 5.7490058
15.444907 -105.19227 -2.7179003
4.6890111 1.6212944 0.89601058
0.19243011 -0.39511096 4.4739356
3.7182918 -119.9784 -2.5225687
5.8935614 -113.37791 -2.7485702
7.9989867 -115.90399 -2.7275877
9.5566883 -115.22649 -2.8726614
10.60358 -123.22865 -2.0925357
-3.3968945 -1.6632121 4.1500435
15.837543 -117.8802 -2.5252566
15.858249 -111.04965 -2.8400695
0.79204828 -122.54848 5.1334224
-1.8796731 0.57170546 4.4485316
11.510023 -113.46856 -2.4196594
11.219443 -116.43592 -2.6548898
6.5575504 -115.09496 -2.7788932
13.719637 -112.05299 -2.7817676
14.504563 -112.23829 -2.7539113
14.84588 -110.26427 -2.8102834
11.990505 -109.45425 5.4323664
16.292393 -125.12343 -1.7568241
8.5330496 -111.97469 -2.8127644
10.096383 -135.08856 -1.7984228
10.199438 -115.43128 -2.6816792
6.2833757 -111.93259 0.12718126
5.2919874 -121.69486 -2.5063016
11.102116 -111.66142 -2.8096955
9.6729193 -125.38091 -2.3331554
2.5897062 -4.0525484 4.4094272
10.376503 -112.48893 -2.7775605
34.097912 -139.2173 -2.0777874
10.997851 -112.38486 -2.7566726
15.932533 -112.7183 5.3888865
15.620409 -132.44232 -2.324194
21.308777 -120.58102 5.7409029
12.702912 -113.23186 -2.4426248
23.744057 -127.10304 -2.5057871
17.074223 -114.54485 -2.8264329
2.6227517 1.068109 4.2421665
21.575613 -120.51347 5.9104357
3.8496122 -112.22187 3.568547
2.8494978 -112.32153 5.2261953
1.9060087 -110.01038 -2.7672439
2.3318257 -101.90278 5.301672
1.5990986 -122.4274 4.0257583
7.0193186 -112.95382 -2.7882714
8.2225971 -113.63188 5.277164
5.9504123 -122.08914 -2.3800406
9.5853386 -115.23581 -2.6363201
8.7702818 -120.10801 -2.5067043
11.848848 -115.23937 -2.638521
1.6398329 -116.00565 -2.5612562
6.2831936 -114.51626 -2.685477
1.9591687 0.23667863 3.952987
8.6532583 -113.91652 -2.4593074
11.515412 -115.02 -2.7248118
2.0436766 -1.8374751 -5.2127743
9.6579084 -116.75301 -2.6335373
10.149706 -116.33671 -2.6988883
4.7643418 -115.85861 -2.7031786
9.6936903 -113.50948 -2.4184864
6.6748805 -117.69551 -2.5493906
13.844197 -116.56793 -2.7287276
14.558094 -110.62867 -2.8037758
14.078775 -112.68314 -2.7257113
13.232608 -112.67276 -2.7176242
13.577474 -112.36044 -2.7841308
14.711337 -111.79919 5.4892468
14.069645 -112.68211 -2.7179277
5.7492509 -114.38803 -2.5883663
2.4643049 4.2442803 -3.041805
6.6720829 -117.69332 -2.5556633
21.906115 -117.7667 -2.1828263
11.215263 -116.43573 -2.6619945
10.981862 -119.02047 -2.4433792
6.9766684 -117.38843 5.4567351
0.52065086 -103.09296 1.6942691
3.3139365 -114.1314 -2.8621643
14.498278 -112.23521 -2.7220531
5.8596921 -114.35943 -2.5149822
16.247671 -109.83688 -2.8466887
10.208153 -115.4271 -2.6735551
8.2818279 -113.69077 5.2523737
-1.9659498 -102.41988 -2.9963489
2.6800249 -112.31914 5.271451
18.044678 -116.7644 -2.6286714
13.828784 -116.5474 -2.7056723
24.231234 -124.59962 -2.4840605
5.869514 -114.34946 -2.5216134
16.192024 -109.87662 -2.7948613
5.486558 -116.56539 5.6753259
3.3956349 -114.11127 -2.8092694
3.309834 -115.45632 -2.6690445
10.013605 -115.06654 -2.7398758
10.560619 -123.64943 -2.2719104
5.9914203 -108.2219 -2.5468049
-1.4084059 -102.82374 -2.8052244
15.959875 -117.29348 -2.6725032
25.401203 -128.65675 -2.2083697
5.9994645 -108.21585 -2.5364408
-0.9292345 2.0127521 3.496438
-1.3665994 -102.82495 -2.8349378
13.104018 -117.13405 -2.6184094
22.266064 -117.99284 -2.3615568
11.996058 -109.4841 5.3790302
15.872059 -111.061 -2.8274019
10.641021 -113.8916 -2.6199224
10.48182 -108.37843 5.0529633
1.399018 -98.275604 0.95599854
16.927282 -119.02363 5.0865397
17.135111 -113.33383 -2.7689025
25.626905 -125.97145 -2.9627318
21.319574 -123.6473 -2.4047027
9.6249418 -116.75002 -2.6295323
5.5159569 -116.53497 5.6431785
12.002859 -109.46569 5.4204936
18.960794 -102.88685 -2.6372278
28.655485 -139.32915 0.47872382
37.53307 -133.26262 -2.8349733
28.569395 -139.20789 0.49201551
-3.108073 -2.0332489 3.989785
6.9464812 -117.42168 5.4908609
5.1964369 -121.82689 -2.5884564
3.433115 -114.10273 -2.7926269
6.8243246 -112.23283 -2.7140424
-3.4189272 -1.164961 4.2541056
7.9091363 -110.23462 -2.5304089
14.717766 -123.14682 -2.5397038
6.8016224 -112.21915 -2.7364721
13.345534 -114.62312 -2.7754209
28.582598 -139.24776 0.50096411
0.2314021 -113.97797 4.9220686
7.5174394 -136.73677 5.6991959
8.3863802 -108.51882 5.5330281
-4.0296125 -1.872213 4.0859666
-0.43179318 -115.52543 -2.5001476
2.2198293 -108.82866 -2.665848
28.381128 -138.9628 0.60870582
0.90496522 -124.7364 -2.6933086
8.883234 -113.40663 -2.6753061
5.609869 -109.5756 -2.7751749
7.8943095 -110.18096 -2.6533318
17.51465 -129.07895 -0.50864184
25.893538 -129.23552 -2.3303454
-0.10143106 -2.9850168 3.8923156
9.7916069 -136.05493 -1.556803
-1.7876054 -4.3414121 3.4400492
8.1354361 -142.08102 0.75456905
8.2337732 -111.73045 -2.767453
17.058691 -125.96325 5.1897635
-8.3539696 -91.130821 -2.6131504
10.784 -145.09627 -0.29540306
0.63997185 1.4916173 -5.5493488
34.010136 -139.0096 -1.9983069
13.866494 -149.51237 -0.17956695
21.289698 -113.15189 -2.8822343
26.113415 -129.43579 -2.3982763
14.346948 -113.42877 -2.4854913
14.260685 -114.99546 -2.76159
14.088466 -116.70985 -2.7384322
7.6022973 -112.17163 5.5328107
-28.730684 -97.237396 8.2689199
5.835022 -111.91354 0.69822264
1.1227473 -124.42012 -2.5293088
12.014666 -112.67511 -2.7147276
15.093298 -117.28393 -2.6289191
8.0594397 -114.53867 -2.7751572
13.569735 -114.22047 -2.7874546
14.348821 -113.43325 -2.4818761
6.7168236 -113.57221 -2.6665115
13.366377 -115.44138 -2.7443178
8.8831482 -114.45483 -2.7942715
7.5134058 -114.92569 -2.7834187
19.118883 -118.54096 -2.6676288
6.6702046 -117.69699 -2.5692136
10.554955 -123.71714 -2.3072674
13.47123 -111.61128 -2.8531234
8.0970545 -116.99072 -2.6808863
12.698061 -125.42847 5.6531138
11.106286 -111.67736 -2.8444636
16.674801 -119.1918 5.3610659
8.8073273 -120.13869 -2.5326056
13.627 -119.95157 5.2532411
20.578123 -119.25786 -2.6859174
8.3910856 -114.80407 -2.7839596
10.553232 -115.71648 -2.687423
-1.1149811 1.8124938 3.7765992
2.995039 -4.4303918 4.2503386
13.539528 -114.42657 -2.8039637
6.1661863 -7.0487385 4.0629716
8.1163588 -120.20636 -2.5620141
10.59372 -115.05484 -2.7464032
11.670555 -113.74445 -2.452672
8.0784779 -118.14429 -2.6253982
-7.8552418 2.7463205 0.32229412
7.8419881 -112.71223 5.4912705
4.7435899 -113.42673 -2.7676058
11.577819 -112.76746 -2.6718147
4.7656217 -113.42575 -2.7620995
0.071217224 -119.99632 -2.4227026
10.935824 -119.27144 -2.614094
17.34853 -113.28162 -3.0059075
16.237524 -109.84924 -2.8219759
1.5440798 -112.84048 -2.7404799
16.047209 -115.46404 -2.7215772
12.544744 -112.75809 5.5595403
9.9959249 -115.07279 -2.7678449
2.0872808 -108.78629 -2.7159882
-1.1029836 -3.9845004 -5.1216083
14.501421 -111.13992 -2.9242563
1.3225913 -107.84131 5.2194576
13.580662 -112.35622 -2.7907732
10.685454 -113.88903 -2.6095886
11.66765 -113.74422 -2.441493
11.842988 -115.28574 -2.7177742
14.970485 -114.62139 -2.7958717
10.992385 -112.08203 5.1590757
-6.4488621 -1.943583 4.354773
14.967934 -114.60927 -2.7744253
17.810509 -111.99197 -2.8777695
8.8756094 -114.45899 -2.7998476
6.6385741 -119.82804 5.3726444
2.7974422 -112.32284 5.2079411
13.586074 -119.78449 5.1808991
20.563253 -111.10401 5.8936834
15.540051 -110.78012 5.361413
14.401417 -113.42567 -2.5230052
8.1121979 -117.00185 -2.6778746
9.6199322 -116.75735 -2.6230254
-3.8899188 -2.6627607 -5.5449467
6.4751363 -120.00797 5.4454083
5.588325 -109.57811 -2.7874656
2.8449376 -112.32935 5.1761761
14.266339 -111.40083 -2.8605151
19.913685 -111.61101 -2.7014501
0.94523066 -118.78332 -2.5165539
10.518708 -115.73359 -2.7115874
10.769131 -123.8524 -2.2954538
10.262268 -120.96076 5.4342752
4.922133 -123.39146 5.0267015
12.105851 -122.20312 5.4533796
13.143015 -119.93591 4.9838419
21.975723 -117.84558 -2.2373633
13.555122 -121.34389 -2.6136847
23.381519 -112.81147 5.2355213
14.523721 -112.2085 -2.7459753
14.410896 -113.43013 -2.5190027
16.286135 -109.81656 -2.9311123
-4.4232168 -0.23693393 -4.9002934
9.1931524 -111.6943 -2.7729118
8.9972162 -114.3973 -2.7856822
-1.3798412 0.62648404 -5.3652925
9.0003719 -114.82327 5.3013248
8.0912943 -118.13683 -2.6230171
17.413864 -112.96062 -2.4897895
-8.7302856 -2.9532764 4.787333
37.994347 -125.61812 -3.0463386
17.847445 -115.93298 -2.7517951
20.572096 -111.11041 5.8519545
0.049211793 -118.04347 -2.5122898
13.708167 -129.60878 -1.9143858
3.8370597 -7.9637628 4.5933719
21.530523 -123.40199 -2.5184314
12.420456 -117.26817 5.4285307
12.004765 -114.66141 -2.668915
4.3814754 -113.01711 -2.7123899
4.7399964 -114.23523 -2.4434071
7.0280972 -112.91862 -2.7655435
11.494889 -117.43418 5.7810555
5.8067055 2.4608903 4.7292604
10.39216 -114.62121 5.3283577
8.9967546 -126.44811 -2.3290744
1.0305676 -130.28294 -2.2849057
9.4348345 -116.96242 -2.5843053
8.6494617 -118.77251 -2.5446994
5.0085697 -116.22485 -2.6722863
7.9830875 -1.256531 -5.23946
15.586651 -118.62623 -2.6418114
16.646341 -119.13191 5.3065419
14.672894 -116.05749 -2.6877813
9.895174 -117.53072 -2.6306055
3.1780677 -132.77888 -2.2241211
-1.6934987 -3.3243513 4.0109682
-8.5824957 1.1492238 4.3965192
12.431633 -119.72521 5.3810558
5.3018131 -119.86097 -2.5168593
8.9901276 -114.82217 5.3103647
13.602032 -119.83868 5.2110257
15.654758 -132.62837 -2.3894198
14.704899 -112.27203 5.4856334
19.890696 -111.61899 -2.7381716
7.0231156 -112.94882 -2.7814338
11.494106 -117.42241 5.7679195
14.728806 -112.25603 5.5210266
17.13608 -113.33921 -2.7455409
5.9861145 -8.6215401 5.0955443
14.378393 -113.42303 -2.5291607
0.80033863 -130.37602 -2.3127248
13.381025 -115.44048 -2.7674205
-10.747693 -4.951416 4.4600067
24.304169 -124.68545 -2.492939
6.7981911 -112.15419 -2.7051198
1.3973784 -107.90962 5.2377186
12.25601 -114.62072 5.4108944
14.114753 -120.98201 4.945508
13.179391 -125.43462 -2.4887137
11.329381 -114.16308 5.5772505
1.3373219 -107.86755 5.2760592
16.027004 -115.49322 -2.6834333
6.2587056 -5.2490001 4.5255899
15.614884 -132.37445 -2.2894223
13.465827 -111.64716 -2.8344407
19.843376 -111.64812 -2.6557524
32.402157 -113.16766 -3.0776021
14.713158 -123.1688 -2.5654078
19.058496 -118.51972 -2.618567
16.590347 -119.06357 5.2732821
12.271467 -114.62446 5.4452753
1.5628722 -112.81813 -2.7581134
8.1195269 -120.21165 -2.5593059
9.8635492 -117.56565 -2.668129
6.1260228 -116.53979 -2.6100082
4.7622204 -115.85567 -2.7149656
14.538461 -113.64644 -2.7165048
16.616655 -105.89118 -2.8540778
14.697845 -112.26994 5.4826241
-0.64800149 -1.5530846 4.7577848
17.86347 -115.91499 -2.773206
18.154192 -126.39803 6.0611572
0.79983908 -113.31921 -2.7059276
15.828293 -111.08559 -2.7797062
24.333551 -124.68259 -2.5261548
12.258546 -114.61681 5.3648562
16.851067 -126.88699 -2.2930996
6.8545012 -116.51182 -2.663991
14.754166 -123.24432 -2.5928051
16.074064 -113.90174 -2.8494661
14.848931 -121.30516 5.1089449
18.340322 -123.11554 5.210824
12.780087 -114.67268 -2.7712572
0.76941472 -113.29748 -2.7126527
3.7226882 -119.97608 -2.5130293
14.135392 -113.62987 -2.7230527
2.0620282 -106.32874 -2.8388598
11.309826 -121.36361 5.4521756
2.4635201 -117.99717 -2.4935057
2.1967676 1.1430216 3.9075472
26.643185 -104.90751 -3.007493
9.0432453 -123.95153 5.6515522
24.166935 -122.2522 -2.5933597
22.37442 -127.7324 -2.6804757
8.8908138 -124.52079 5.8268161
10.413369 -116.33042 5.2329378
5.5119262 -131.30099 0.49608517
12.105873 -118.05921 -2.5918677
12.435209 -119.89379 5.4694257
13.593204 -112.32691 -2.8071408
10.345042 -139.24327 -4.8207641
7.6773462 -139.61378 2.977262
19.713434 -120.13844 -2.308301
14.377613 -116.70239 -2.5929654
15.942078 -117.25356 -2.6824989
-1.2950358 4.765564 5.0043511
16.893473 -115.25702 -2.7650092
13.398507 -118.66756 -2.2925358
11.798602 -116.98496 5.484621
11.709945 -122.50979 -2.6857703
7.2879572 -118.30038 -2.6198487
17.117434 -121.05356 5.5099421
13.912492 -117.21657 5.4259076
15.664117 -117.87056 -2.6195428
11.237645 -117.34153 5.4615579
18.16798 -121.36748 5.3857064
12.786191 -115.06808 -2.7182221
14.959422 -116.40475 -2.8339415
15.914973 -117.24575 -2.6443398
14.402427 -116.73787 -2.6601906
12.103877 -118.05189 -2.5768609
11.733247 -122.11579 -2.4456985
13.103645 -117.15864 -2.6172535
24.347691 -122.31429 -2.6595631
31.453127 -117.22485 -2.796819
17.652456 -107.37878 5.8703208
16.297361 -111.85506 5.3511167
19.68635 -121.71584 5.6002378
13.837073 -116.57256 -2.6941333
9.4021597 -116.06376 5.6658788
21.992344 -111.17495 5.5185695
21.09935 -112.54916 5.7839255
12.681737 -117.30873 5.4814315
10.869115 -119.33723 -2.6759081
6.4220343 -1.6206989 4.5243173
10.374257 -121.22703 -2.2784553
11.731666 -122.14275 -2.4495521
8.9006491 -121.13239 -2.2792063
12.075583 -115.50532 5.4728656
0.44348952 -125.08959 5.6370282
24.273657 -122.28362 -2.6209624
31.161539 -117.17618 -2.7443707
17.099932 -113.35567 -2.7179511
-0.85151833 3.1323087 3.759064
22.126629 -111.12555 5.5645561
14.938997 -115.47713 -2.7525687
12.069067 -115.50444 5.4642639
11.911366 -119.40768 5.1096597
14.40363 -114.6101 5.5356016
14.722023 -118.49515 -2.5067649
13.416291 -118.66558 -2.2910621
5.3974199 -119.80391 -2.4666779
11.429733 -119.05674 -2.5592051
12.065924 -115.50285 5.456615
0.48498908 -125.09193 5.6455178
11.482292 -117.97593 5.2332482
9.0080385 -110.0844 -2.6932356
8.9341183 -113.50638 5.4760656
0.63118881 -106.93472 5.760654
12.300829 -117.31163 5.3740487
16.74378 -117.7076 -2.6872985
17.464817 -107.60752 5.781846
28.559479 -101.97456 4.9966946
14.047134 -114.32208 5.4797888
14.800108 -112.1921 5.6070161
32.889946 -113.08374 -3.2106388
20.077799 -113.37617 -2.8791049
5.8214607 -114.34927 -2.5741315
8.8660126 -114.4493 -2.8095064
14.330169 -114.4724 5.3492107
12.284199 -119.10487 5.6039085
16.747087 -117.71526 -2.686785
17.943481 -116.75563 -2.5408387
12.110438 -110.43249 5.4386792
20.059814 -113.38734 -2.8580635
23.958885 -108.71069 -2.7514369
11.428994 -119.09234 -2.5630295
0.4766458 -125.10703 5.6746473
0.0067938678 -116.47198 5.0276713
9.3021297 -0.58377987 4.3734012
5.0500011 -114.71674 -2.6544673
6.7932129 -112.17677 -2.713603
-5.1607428 -3.0806971 -5.2697353
14.929431 -114.62779 -2.7143624
14.417872 -121.15573 -2.6389363
13.382724 -115.45006 -2.8197784
14.946427 -116.3978 -2.7941327
12.720102 -117.22087 5.5170245
8.542304 -112.49789 5.4841642
9.0325689 -112.50434 5.5914264
11.998475 -114.65604 -2.6576493
12.10745 -113.65317 -2.4802215
11.324297 -121.27013 5.3977871
8.9355259 -118.14475 -2.5293863
0.035379991 -120.00938 -2.4252594
5.7993793 -121.64694 -2.4778545
4.9893947 3.7598491 -5.4987569
14.347795 -114.93236 -2.8067899
14.749617 -123.18311 -2.5420215
0.75025785 -112.72598 3.5360618
7.9294481 -115.88385 -2.7765605
11.638818 -115.29272 -2.7542431
6.9166822 -122.10947 -2.4030328
13.378988 -115.45922 -2.8263094
9.7411127 -136.38474 -1.6087581
12.252167 -119.68599 4.737421
35.584072 -108.83951 -3.2957437
10.522463 -115.73846 -2.7254512
3.0055828 1.4418535 4.2778254
4.7020392 -2.0551956 -5.1596026
8.8129892 -120.12669 -2.5363832
7.9309893 -115.90474 -2.7859633
-1.4856082 -103.27932 -2.7808874
61.87384 -108.40486 -2.9667656
14.447202 -113.4251 -2.4903958
8.6382542 -112.6285 -2.8266971
17.519426 -114.32096 -2.8434484
3.6811497 -118.07612 -2.5420907
8.6178942 3.1659205 -5.3017139
16.761566 -126.68044 -2.2255681
20.110472 -108.50298 -2.9285655
6.8633623 -116.51186 -2.6466131
0.769876 -112.73352 3.5620987
7.8927979 -123.64173 -2.3549175
9.815485 -136.21033 -1.5867567
-9.3205557 -107.97588 -2.1526985
16.412022 -121.76212 5.3407907
37.017853 -128.59152 -3.1298232
10.597753 -150.67989 -0.56436318
5.7112675 -121.95173 -1.7603124
13.92443 -125.28111 -2.3651478
20.867083 -116.66643 -2.766453
31.747936 -117.21506 -2.9067962
15.584267 -118.6206 -2.6466517
1.7002937 -114.74024 -2.5364087
2.5767539 -111.14039 5.5244799
21.239576 -113.18726 -2.8505406
14.928298 -118.89793 -2.4203696
5.6700158 -125.60755 -2.3593524
9.0049038 -110.09579 -2.6678708
9.5993471 -112.4201 5.3634892
30.544342 -122.11423 6.0489888
0.00032346699 -116.43263 4.9714026
13.696191 -122.94942 -2.4217379
7.0023637 -112.29829 -2.5477164
33.279415 -113.07832 -3.3252549
9.221714 -117.27049 -2.5969644
17.889936 -115.94489 -2.7805097
37.664402 -128.76242 -2.8099351
31.4653 -117.1695 -2.8026299
20.050108 -111.76967 5.9200521
22.160309 -111.1191 5.5990796
15.598174 -110.7354 5.4250221
57.329536 -108.82313 -2.5928874
16.090324 -109.99699 -2.6346543
13.466773 -118.72495 -2.3725533
17.848255 -115.96783 -2.7442305
21.972998 -111.2559 5.5043797
21.150887 -113.16232 -2.8107955
-0.9034602 -2.8302047 4.0833168
2.9021704 0.77171111 -5.3806872
18.437986 -120.13148 -2.4380369
11.832134 -115.26002 -2.8044348
13.405165 -118.69952 -2.3348281
12.858161 -123.6633 5.0713482
8.759285 -110.63557 -2.6318049
10.851432 -117.84517 -2.5825744
9.5773096 -124.79521 5.5887079
8.7766123 -120.11547 -2.5332167
11.803033 -116.98775 5.4828329
14.276979 -119.29688 -2.5242422
6.152554 -116.62225 5.3862739
9.3988199 -118.58586 -2.5511825
11.804655 -116.98084 5.475513
17.134987 -113.34567 -2.7546158
16.866131 -115.25175 -2.7381423
3.5504124 4.1300812 -5.3697009
17.233704 -113.19349 -2.2444186
11.595217 -119.35638 -2.5643802
13.40832 -118.65745 -2.2761636
13.700672 -122.99027 -2.4592469
15.662785 -121.5848 -2.6526074
41.587463 -106.86548 5.2869921
14.724367 -123.12562 -2.5255904
35.513729 -108.84945 -3.2423031
20.035547 -108.57468 -2.8773074
10.143241 -117.70289 -2.6609015
44.04845 -2.0903552 -3.2784429
10.262974 -121.58315 -2.5204902
11.800246 -117.00455 5.4887295
8.8603144 -113.39767 -2.7101028
18.84057 -109.04033 5.5720806
5.168303 -119.98755 -2.6306381
10.270838 -121.5789 -2.4953725
11.808326 -117.00658 5.473711
9.0770941 -110.17619 -2.6408265
24.180229 -124.63908 -2.435833
1.0770226 4.7633395 -6.0792475
37.723984 -133.91675 -2.7758439
6.7795749 -131.91139 -2.0409617
9.673955 -120.37456 -2.4866674
37.781494 -133.94621 -2.7680552
16.270397 -129.68527 -2.442889
6.026269 -116.62232 5.4407353
16.24078 -121.49407 5.2035732
51.096619 -95.285049 -2.2759573
14.626291 -114.20194 -2.7534406
8.0670757 -114.54324 -2.7543199
0.46699813 -123.44867 -2.3526359
21.544737 -123.38029 -2.5251801
6.697412 -117.6232 -2.5488377
17.499846 -118.86074 5.3871636
1.369022 -107.8449 5.1900449
5.0780945 -112.17715 -2.7899821
11.513064 -115.05233 -2.7721159
28.553741 -111.7737 4.9800997
24.743647 -132.90355 -2.3078942
10.524573 -115.74474 -2.7205145
7.5072412 -114.91476 -2.7943025
58.365494 -136.75644 -1.7449934
